ply
format ascii 1.0
comment PCL generated
element vertex 63
property float x
property float y
property float z
element camera 1
property float view_px
property float view_py
property float view_pz
property float x_axisx
property float x_axisy
property float x_axisz
property float y_axisx
property float y_axisy
property float y_axisz
property float z_axisx
property float z_axisy
property float z_axisz
property float focal
property float scalex
property float scaley
property float centerx
property float centery
property int viewportx
property int viewporty
property float k1
property float k2
end_header
-9.7061996 26.814301 -12.6922
-14.3562 20.526699 -45.2421
0.7762 -9.0930004 -40.592098
-12.0312 18.647949 -40.379349
-14.3562 -20.485451 -37.807751
-29.2831 11.832 -38.267101
1.9188 20.8549 -35.9422
4.2107248 19.960323 -18.668499
-12.0312 27.612 -10.3672
9.2113495 17.0389 -5.7171998
17.8841 -2.118 5.9078002
15.8688 11.832 7.6585002
20.2672 2.5320001 12.8828
1.9872501 -13.7728 -45.2514
-10.879351 23.506035 -42.976524
1.419 16.447601 -32.949951
1.419 16.447601 -32.949951
11.837328 17.946728 -11.773103
13.626167 -13.894189 5.2458777
13.2155 -16.068001 8.2327995
46.0938 -2.118 12.6148
19.535358 -4.2223668 14.62655
46.657951 -1.1212 12.8828
20.507221 1.3362125 14.183669
17.017551 11.832 14.0453
46.0938 -2.118 42.743599
-52.718697 -2.118 46.457748
-52.718697 4.8569999 46.12265
-49.231201 14.447625 46.423412
20.832268 17.353874 47.011169
-16.140808 -34.747253 -9.6603203
-16.140808 -34.747253 -9.6603203
-46.825214 -9.2995243 -9.0915213
-47.560371 3.1721041 -9.7744522
-46.059708 10.0913 -9.4792471
8.9732151 21.720057 -9.9872465
-29.468555 29.919743 -10.049248
6.7837081 26.009407 -8.3959503
20.087414 -9.9054289 -2.7808204
-22.250158 35.565781 -3.1449599
-9.4736996 -41.148369 9.8358898
15.141401 -29.027557 9.7095184
-52.980934 3.0163751 9.4811668
-48.929565 16.621649 9.3285837
14.059117 27.743555 10.533648
-22.632349 -41.352531 16.146961
-8.8177929 -41.965191 15.14752
9.3018007 -35.406105 15.30839
42.025051 -6.820056 15.769862
-54.442329 -3.1432667 15.362801
-47.360931 22.13925 15.86582
-16.027294 40.78091 15.934362
48.186302 -3.5129998 42.12431
28.78397 -3.18555 45.622261
1.0076499 38.607925 45.451626
-0.89749306 6.0343652 -44.761093
-20.120548 -33.595543 43.259968
-36.506538 -24.629467 43.626137
20.19273 -6.01057 43.153126
-10.310991 -17.387691 -39.546928
-51.556198 -25.709101 38.457802
55.505867 -5.4234014 35.644794
55.505867 -5.4234014 35.644794
0 0 0 1 0 0 0 1 0 0 0 1 0 0 0 0 0 63 1 0 0
