ply
format ascii 1.0
comment PCL generated
element vertex 82
property float x
property float y
property float z
element camera 1
property float view_px
property float view_py
property float view_pz
property float x_axisx
property float x_axisy
property float x_axisz
property float y_axisx
property float y_axisy
property float y_axisz
property float z_axisx
property float z_axisy
property float z_axisz
property float focal
property float scalex
property float scaley
property float centerx
property float centery
property int viewportx
property int viewporty
property float k1
property float k2
end_header
36.342201 -12.6735 -45.2006
-20.1812 11.2114 -45.069702
-31.72965 0.6031 -41.721149
16.17775 -8.3008499 -27.267948
17.0567 -9.4974003 -28.164
11.48895 8.3182001 -25.497299
10.38705 10.75275 -25.440899
10.38705 10.75275 -25.440899
22.239399 -34.72995 -23.3314
6.7129998 16.9935 -20.087799
-15.12435 25.255699 -20.56855
5.4527998 15.114799 -18.165249
6.1177998 18.190367 -18.387068
-19.6968 19.646799 -18.9988
10.2349 -8.3002996 -5.5903001
-3.4786501 36.624947 -3.5260501
-15.74325 24.889301 4.3280001
-15.74325 24.889301 4.3280001
-15.74325 24.889301 4.3280001
18.090368 -1.2008666 8.1502666
18.04805 1.39545 8.2475996
18.5411 -5.6315999 10.50245
19.875299 -3.8085001 10.818
-6.9631 -22.319901 12.6432
-17.869999 -15.949066 13.602734
10.954933 20.187899 18.483534
-8.5781002 -14.63065 25.31325
-3.8814001 -11.415 36.817001
-15.951 1.0891666 37.275265
16.899563 -7.3474207 -45.391567
18.4268 -6.9316502 -29.08605
-26.796656 17.209818 -31.224951
-37.272961 -7.1267624 -26.32535
16.247721 -7.4853973 -26.781271
12.6583 7.3557625 -26.3708
-3.4839499 -32.815681 -21.014259
-21.950806 -26.602287 -21.479561
-12.081338 -27.899191 -21.478163
-12.081338 -27.899191 -21.478163
8.2746 12.076289 -21.581709
17.526461 -37.65815 -16.205667
-37.391701 -2.6299167 -17.04335
-8.232338 32.148163 -17.419937
11.723555 -37.571342 -12.322208
-8.4431 -28.2166 -13.6195
-8.4431 -28.2166 -13.6195
-8.4431 -28.2166 -13.6195
-19.1639 19.0385 -11.0331
4.2862997 16.71315 -13.04305
-16.639717 21.029848 -11.905643
8.2181416 -16.808912 -7.0923462
8.6241665 -12.796422 -7.6426558
-27.60339 13.5527 -7.042717
21.389 -31.198578 -2.2917252
-23.9042 -18.7584 -0.32300001
-29.976397 -11.795612 -2.8105292
-28.24235 -13.02195 -0.75619996
10.56305 17.6157 -2.1315167
-2.25965 33.084999 -0.18575001
9.5417995 3.16535 1.3067
9.9569998 7.77005 3.9191999
-2.4887648 26.619312 3.3832645
-2.4133959 21.608601 7.4406166
-12.37855 -21.351612 11.97869
17.209967 -7.6374331 11.732796
-25.354063 2.5851209 12.055034
-25.354063 2.5851209 12.055034
21.29829 -2.4024801 16.6164
-16.245821 15.913855 16.27445
7.4429665 21.615833 16.695957
7.4429665 21.615833 16.695957
-6.9491172 -14.918468 25.747284
2.4883251 18.361961 26.417263
-1.7902001 2.60235 45.732883
9.1106501 -14.717951 -10.63325
-36.518143 -4.7882833 -14.424215
9.3760109 4.6430912 1.380511
9.3760109 4.6430912 1.380511
-9.6567993 -9.6056843 -44.862465
9.603611 9.8247833 -44.489014
-6.7428021 -5.9490337 41.014317
7.298151 8.1404896 40.760502
0 0 0 1 0 0 0 1 0 0 0 1 0 0 0 0 0 82 1 0 0
