ply
format ascii 1.0
comment PCL generated
element vertex 105
property float x
property float y
property float z
element camera 1
property float view_px
property float view_py
property float view_pz
property float x_axisx
property float x_axisy
property float x_axisz
property float y_axisx
property float y_axisy
property float y_axisz
property float z_axisx
property float z_axisy
property float z_axisz
property float focal
property float scalex
property float scaley
property float centerx
property float centery
property int viewportx
property int viewporty
property float k1
property float k2
end_header
58.638233 -39.395702 -69.081268
123.937 -3.5878 -70.259201
127.04649 -5.6539001 -68.710297
107.314 10.9786 -69.451698
-27.123749 53.532547 -68.106247
-5.1655002 -53.132401 -67.09465
-94.386299 46.336899 -56.9132
-119.74567 -37.329201 -43.356464
114.749 -1.9382999 -33.509899
100.91759 -4.7742996 -1.84848
74.644051 -0.92300004 42.786201
76.840897 -1.7448 42.495201
-100.827 1.5821999 46.627197
-109.02 -1.1160001 57.265202
-67.177063 -48.116756 -66.690056
-10.103971 -48.188896 -67.302055
118.0885 -3.1571252 -69.857559
-67.602089 9.7102489 -67.616722
-73.661072 16.053875 -67.057175
92.718758 15.926112 -69.621208
-103.054 -9.6923504 -52.22245
-102.8815 -2.9768751 -52.446602
-102.95025 10.312475 -52.0061
-98.174744 46.926399 -53.826191
-60.455582 -58.417793 -48.169895
-60.455582 -58.417793 -48.169895
-34.995647 -58.503601 -47.766605
-16.48185 -58.319454 -48.735249
16.237658 -54.159817 -47.974995
52.848701 -45.102798 -50.044701
-105.21233 -35.00396 -47.478962
82.369133 -31.122633 -46.752399
-115.905 37.763699 -44.999401
-67.480377 58.815666 -48.000114
-41.724625 57.974564 -48.160412
15.97715 -52.009102 -42.905273
60.232967 -39.177067 -41.482967
-118.50905 -35.316597 -43.653603
82.037422 25.302074 -41.246552
-118.40033 41.653877 -44.044891
-9.5414171 53.93047 -42.231449
-60.194298 57.892677 -44.093174
-80.060898 -54.630386 -35.300926
115.76 1.0528333 -37.187668
-86.391273 -52.715839 -28.884716
-86.07991 54.21981 -29.121906
-79.737778 53.979198 -29.123981
-112.00072 -9.7137499 -22.606701
-117.65175 45.843224 -24.781849
-112.86113 2.9403 -15.7312
-112.51863 9.4573374 -15.618063
-115.396 39.4524 -19.001301
100.12872 -3.4025199 -2.6786261
100.12872 -3.4025199 -2.6786261
-9.3494501 -24.7215 5.8887997
-41.894875 -10.00835 0.72650003
-9.9256506 -21.517832 7.9039664
-9.4293327 -15.576533 9.4342661
-3.1117249 20.49505 6.9537001
-59.681408 2.9781919 22.506701
-106.5751 10.057501 22.791668
-73.522232 -27.200237 28.598938
-105.77145 3.1567125 28.528887
-10.129988 -3.5501199 34.887318
80.77063 -3.2242563 34.870655
80.77063 -3.2242563 34.870655
-41.576336 3.224679 35.211769
-67.672424 -21.332626 41.698589
78.419708 -2.8687632 41.216785
58.412384 -2.8645165 53.319534
-41.761364 -3.2009459 62.488117
-83.269073 -32.677734 -58.056118
-57.750217 -53.202724 -32.125156
-44.558361 -53.004929 -32.451405
-19.637474 -52.754013 -32.981258
45.007141 -41.70821 -31.915798
45.007141 -41.70821 -31.915798
31.910276 42.271656 -32.08213
-57.786827 53.591278 -32.123398
-57.786827 53.591278 -32.123398
-6.9103556 51.571384 -37.028221
-6.9203134 -45.026226 -19.138643
100.95406 -7.6654377 -14.424103
-6.3313484 43.730518 -20.116495
32.340412 39.321362 -24.277687
-104.48652 -40.378475 -6.1886015
-96.561691 -44.144142 -6.9016838
-104.78128 40.869102 -6.3247852
-95.2901 -39.739723 4.1388001
-12.9566 -25.6099 3.0265999
-112.2504 -6.3739176 6.2956877
-112.07876 6.5675783 6.5445185
-30.902239 6.6553493 4.6424131
-95.243431 40.323967 5.8958831
-95.243431 40.323967 5.8958831
55.645985 -4.2133803 53.787395
56.994183 2.3496959 52.724243
-109.64935 2.7583072 68.419029
-38.356888 -12.843107 -68.136459
-12.796692 -12.72784 -68.65715
-38.395172 12.775847 -68.458519
-13.321737 -10.29628 58.589485
-109.11473 3.3526106 63.305515
11.953056 52.783302 -61.588089
24.544024 6.23211 53.910767
0 0 0 1 0 0 0 1 0 0 0 1 0 0 0 0 0 105 1 0 0
