ply
format ascii 1.0
comment PCL generated
element vertex 111
property float x
property float y
property float z
element camera 1
property float view_px
property float view_py
property float view_pz
property float x_axisx
property float x_axisy
property float x_axisz
property float y_axisx
property float y_axisy
property float y_axisz
property float z_axisx
property float z_axisy
property float z_axisz
property float focal
property float scalex
property float scaley
property float centerx
property float centery
property int viewportx
property int viewporty
property float k1
property float k2
end_header
4.1146002 16.7682 -39.5135
-30.964899 -49.881802 -34.020802
-33.114899 -45.581799 -33.783001
5.5851002 -17.6318 -32.191601
-39.050301 -21.931801 -26.659
-39.239201 -17.6318 -26.78565
-48.164902 -9.0318003 -15.4503
-49.7188 -21.931801 -5.4549999
-50.4375 -9.0318003 -5.4549999
-50.443901 -4.7318001 -5.4549999
-39.564899 -17.6318 -45.400002
20.635099 -0.43180001 -42.315899
16.3351 25.3682 -42.878201
-30.964899 -41.281799 -32.496399
-36.410725 -17.6318 -32.814949
-36.745796 -4.9138498 -33.230995
-34.804703 17.843201 -33.404999
-33.542816 37.606167 -33.252598
-29.48728 -39.80827 -30.588249
36.760101 -33.756798 -30.378826
33.535099 -30.531799 -30.6106
36.760101 -8.0361624 -31.195274
39.9851 17.843201 -30.68
10.9601 27.629025 -31.131599
-30.32415 33.931217 -30.188034
36.760101 33.968201 -30.371849
36.760101 37.193199 -30.388102
39.9851 37.193199 -30.594151
-39.050301 -21.931801 -26.659
-43.873138 -14.360975 -22.662727
-39.467899 17.597349 -21.070749
19.652859 -37.447002 -17.560013
-28.106413 7.8633814 -17.850887
-48.791801 -17.6318 -14.926451
-34.450951 -18.1693 -9.0705252
-37.311703 -4.4983001 -5.3958001
-29.99896 -20.886513 1.5572751
-17.968599 -4.7318001 5.2259502
-21.2899 -1.5067999 3.9919751
-21.2899 11.3932 3.811825
-18.064899 21.068199 3.5571001
-33.844452 24.293201 9.5950003
-33.114899 -11.1818 9.6589003
-5.1648998 30.743198 10.4531
22.847868 -41.238266 13.8065
4.5101004 -17.6318 17.237801
4.5101004 24.293201 17.1138
8.1209497 -4.7318001 20.18605
5.5851002 -1.5067999 19.375149
5.5851002 4.9432001 19.351051
5.5851002 11.3932 19.27285
30.578625 -39.157951 22.68005
17.445236 -10.861876 23.995152
14.1851 4.9432001 23.280899
30.878162 42.925549 23.464462
39.9851 46.868198 25.501699
4.5101004 -20.8568 28.049952
4.5101004 27.5182 27.819599
7.7545247 -4.1985002 31.086124
9.8851004 4.9432001 31.85235
33.535099 27.5182 30.222
17.410099 -17.6318 34.226799
36.760101 -1.5067999 32.713924
17.406807 30.748951 33.868824
2.8796878 -41.775452 -39.418331
2.8796878 -41.775452 -39.418331
-28.400753 -35.369301 -41.684639
16.3351 25.3682 -42.878201
22.785099 29.6682 -42.582451
28.638535 -9.4725885 -31.277706
22.337185 22.560551 -30.829697
21.184023 -37.43639 -23.189409
-27.839874 -22.470129 -21.302027
-26.855621 -9.7927008 -22.231363
-24.923695 3.1031203 -24.020977
21.788864 42.458027 -22.742521
21.788864 42.458027 -22.742521
-28.324223 -44.125473 -15.684143
15.885399 -36.366539 -15.767477
15.885399 -36.366539 -15.767477
-48.321125 -15.840133 -2.7373457
9.3476 -39.552956 3.6054094
13.51095 44.718201 4.2200003
-23.430569 -35.487587 12.228237
-14.316583 -3.0062397 9.856534
-13.962569 3.3306999 9.618494
-31.014324 9.7806997 11.770863
-31.025837 16.230701 11.775475
-20.214899 -39.131802 12.9657
27.816351 -42.695492 17.509184
26.736401 44.718201 18.496849
-20.214899 46.868198 13.1293
-20.214899 46.868198 13.1293
29.733192 -40.611725 21.067327
5.5851002 -1.5067999 19.375149
-7.0880127 42.030701 20.0783
-2.3248646 47.25174 21.197773
10.370773 -40.845097 27.565901
10.370773 -40.845097 27.565901
30.861111 -35.106102 39.424892
30.861111 -35.106102 39.424892
35.115669 -9.5692997 44.14896
31.385099 41.493202 38.910851
37.835098 3.3306999 45.278175
37.835098 9.7806997 45.1702
-40.391506 -44.104618 -36.308548
33.319847 18.42062 42.760338
38.501511 13.109287 -36.211967
12.255756 -13.049784 21.378077
38.000496 -12.574871 37.10614
38.000496 -12.574871 37.10614
0 0 0 1 0 0 0 1 0 0 0 1 0 0 0 0 0 111 1 0 0
