ply
format ascii 1.0
comment PCL generated
element vertex 115
property float x
property float y
property float z
element camera 1
property float view_px
property float view_py
property float view_pz
property float x_axisx
property float x_axisy
property float x_axisz
property float y_axisx
property float y_axisy
property float y_axisz
property float z_axisx
property float z_axisy
property float z_axisz
property float focal
property float scalex
property float scaley
property float centerx
property float centery
property int viewportx
property int viewporty
property float k1
property float k2
end_header
9.9476004 -51.995998 -8.7434998
30.5354 -22.5529 -33.789902
12.5899 -53.3978 -7.8737001
12.5899 -53.3978 -7.8737001
-29.337999 -51.0406 -5.3870001
23.4851 -41.302898 -0.44890001
1.6144249 -33.901627 -33.49485
-58.835068 -20.453266 -33.641201
-27.132574 -20.247849 -33.735374
-45.875053 -1.6394 -33.32925
-11.4498 23.89275 -33.511497
60.5723 -17.1327 -31.824699
-24.302526 30.473949 -24.127987
23.67235 -29.46295 -19.9072
-21.02795 -28.309999 -21.0975
-5.5116754 -1.311525 -20.821499
-53.456322 1.8314749 -20.998524
-23.9851 20.016115 -21.124266
-23.67695 31.756401 -20.924549
-24.5145 32.592899 -19.6406
20.4599 32.499268 -20.0616
-24.333 -29.620699 -17.296301
-23.599966 -14.548833 -17.191267
42.058849 -1.21005 -18.140301
56.702702 1.3518 -17.682167
-23.7094 19.312099 -18.656099
11.26875 -52.696899 -8.3085995
22.867399 -52.572201 -3.7086
22.867399 -52.572201 -3.7086
-28.3885 -48.515701 -4.5795999
23.694834 -36.642063 -5.0788999
-22.884199 -51.588299 -1.3480999
-23.610201 -38.775902 -0.083700001
24.410851 -40.26495 -1.1712
-21.56815 -37.043053 -2.24055
-33.34515 -1.164825 -1.5922251
23.798933 39.244167 -1.7463001
23.798933 39.244167 -1.7463001
-20.482399 41.3624 1.08935
27.366201 40.3652 1.7426001
-22.7647 41.8895 3.0678
21.3144 -51.438652 4.8579502
21.3144 -51.438652 4.8579502
33.457569 -51.518169 4.1777997
36.669098 -51.48975 3.9663501
-39.992069 -48.804565 4.7357998
25.879101 41.2771 3.8687
-24.366901 43.135651 4.2926002
-24.302799 -49.042801 7.9428501
26.962749 -49.662498 10.881175
-66.68425 14.344851 12.5341
58.837696 45.570465 11.254601
-54.417702 0.95039999 13.2287
-53.58345 1.4997001 14.8526
-23.784983 2.0685 14.596667
24.047699 49.474178 14.9815
33.244724 49.246151 13.99255
53.011898 -1.3362666 18.236732
23.907801 48.444901 18.1187
2.2583666 43.816132 30.331167
-43.620926 -38.982452 32.439949
-46.4389 1.80384 33.005836
42.963875 37.005177 33.913773
-42.76635 39.887825 33.1605
-19.040501 -31.178801 -17.882601
-22.224342 -13.964466 -15.9282
22.62994 -15.387624 -16.543354
-56.124084 3.2617984 -16.462101
-39.457268 2.8355708 -16.216167
-5.9002328 1.7524666 -17.95645
40.906483 2.9212945 -16.451994
-22.716391 18.211939 -16.05295
-22.330114 34.755871 -15.590816
-22.03796 -33.9972 -9.4307756
22.351446 -35.404903 -9.5647545
-26.1357 37.637901 -11.9084
23.152308 36.694592 -10.317896
28.377136 37.088768 -9.5861645
-22.031099 38.730377 -7.4554749
-9.3093586 45.818523 -9.3711262
3.0604389 48.201168 -10.186449
48.134186 47.640781 -9.1171446
10.296567 -51.885365 -2.4905834
-22.952389 -36.030632 -3.5530562
-69.601067 -7.7608004 -3.4294
19.0737 -7.1055002 -5.1170001
-16.802782 8.8693075 -3.2450626
18.395416 7.2271419 -3.3988419
72.262024 22.461006 -3.2896774
72.262024 22.461006 -3.2896774
-29.034607 -50.016518 2.8859646
35.614922 -50.958725 5.8413
72.69326 34.97234 3.2215085
28.949406 48.184135 5.4425569
-22.337101 51.653576 5.4132252
-22.337101 51.653576 5.4132252
-28.140537 -2.5140798 9.7001429
28.787994 2.9715872 9.2858038
55.024475 -2.7950132 16.218012
-28.067165 2.6949439 13.906555
55.122944 2.5976818 15.812548
-46.118828 -34.805099 32.879639
-46.324162 3.5745327 33.063393
6.8545003 -32.414967 -31.400904
44.736389 -33.396954 -31.867075
44.736389 -33.396954 -31.867075
-44.728077 -19.226503 -33.38887
-44.728077 -19.226503 -33.38887
44.071918 18.307907 -32.405598
-44.838203 32.025242 -33.073868
-45.221558 40.131912 -30.736988
30.214975 4.6590614 5.4031739
19.339432 6.4308643 33.302185
-56.778255 -13.941214 -31.363533
-9.6548309 16.291769 -30.368254
0 0 0 1 0 0 0 1 0 0 0 1 0 0 0 0 0 115 1 0 0
