ply
format ascii 1.0
comment PCL generated
element vertex 121
property float x
property float y
property float z
element camera 1
property float view_px
property float view_py
property float view_pz
property float x_axisx
property float x_axisy
property float x_axisz
property float y_axisx
property float y_axisy
property float y_axisz
property float z_axisx
property float z_axisy
property float z_axisz
property float focal
property float scalex
property float scaley
property float centerx
property float centery
property int viewportx
property int viewporty
property float k1
property float k2
end_header
16.8908 18.396999 -3.4475999
16.185301 14.7752 8.2327995
15.9392 16.9252 8.7678003
-94.408348 46.52 -100.7745
11.83635 46.556427 -101.62951
-55.845501 17.745001 -82.852203
69.09935 -26.697601 -14.66615
17.126032 18.169233 -4.7579999
-1.6771251 -27.192276 -1.2231749
14.406 17.348999 11.6853
11.490351 14.1189 14.7058
12.8744 15.8811 13.6778
95.1474 1.5028334 94.776131
-59.273399 15.1265 102.057
-59.083172 -8.3051672 104.99599
-22.423065 28.751366 -101.34767
-79.85392 35.282082 -102.10088
-73.310036 34.90564 -102.24454
-86.122437 41.328545 -101.55791
9.8227758 -41.815693 -86.325981
21.624516 -28.894558 -86.174973
27.358677 -26.589813 -86.282623
-80.196594 -22.228588 -84.28672
31.7703 2.5655999 -83.529449
32.432545 3.3681414 -86.787964
-11.450827 -9.2406187 -80.057732
-11.251249 22.983387 -79.905617
-11.251249 22.983387 -79.905617
-41.786064 35.382988 -82.325096
25.863449 -26.085274 -74.053452
27.966486 -22.191792 -74.051468
-7.7979751 -26.356667 -67.378021
16.12668 36.063206 -67.209145
-9.3676043 -22.03203 -61.315002
-8.0180998 3.1145833 -41.85408
-7.8642502 9.6287003 -41.827553
-7.6356421 3.19945 -35.183807
21.835804 3.3530083 -28.46633
18.56286 -23.011644 -21.711462
-6.5225248 -2.7485752 -18.138317
-5.6856308 22.225647 -16.131805
18.817142 22.652384 -15.317358
18.224836 16.378622 -9.9131451
-4.712729 -21.960993 -3.0149751
75.942047 -3.2640209 -3.3756645
28.756104 15.795224 -3.6649404
10.141791 -9.7122688 2.9084666
-1.9611999 10.248689 1.5191778
3.6937816 9.8917627 3.0023835
79.903625 -16.414768 9.9081326
79.909218 15.636208 9.7228336
-1.1691792 28.683907 7.9511747
73.343163 51.949631 10.001488
22.725246 34.27356 16.446568
81.487823 35.425541 16.19405
6.9653001 -10.391951 19.5098
3.0985847 9.1214695 22.404516
6.5904999 11.7633 19.590799
85.353462 16.215237 28.568821
20.092751 37.319801 27.316299
84.999191 47.90126 28.440674
73.548065 -58.315731 34.920425
73.548065 -58.315731 34.920425
73.533531 -58.033382 48.056927
90.976608 -41.647884 48.196507
-67.200111 3.0426106 49.293655
67.424004 58.078171 48.181049
3.4801292 -31.134789 54.415424
92.668846 -28.821299 54.803188
92.430008 22.842628 55.088066
92.3666 35.262543 55.114193
92.3666 35.262543 55.114193
79.345505 53.620972 60.637867
79.345505 53.620972 60.637867
60.791016 -53.986813 66.906532
60.791016 -53.986813 66.906532
34.126923 -37.628239 75.842674
97.315811 -16.011118 73.708847
-72.560188 -2.5768783 73.060364
97.358109 -2.9244668 73.338135
97.191315 9.3169212 73.456512
35.350643 -35.030132 79.539932
-3.4282002 26.811312 79.559113
99.441566 -22.593964 87.285797
-67.327049 2.8020642 86.514275
-15.719547 -10.152761 95.301109
67.156326 -3.1124978 101.12181
6.3746529 6.3561015 -103.35857
19.160456 6.3133779 -104.09071
-57.583385 31.930992 -102.19377
-11.360418 -18.954561 -79.685287
-11.446707 19.791309 -79.92041
-82.417778 32.018314 -83.218575
29.260872 6.6115408 -70.456207
-9.2625618 -19.005634 -57.869118
-6.6905155 32.996403 -57.716114
24.704847 6.1349421 -44.309219
-6.2106214 32.292332 -44.796032
-2.6431611 -27.20126 -6.4645486
-3.4632294 30.869459 -6.1888804
-1.8612 -26.1672 1.4444
-1.8612 -26.1672 1.4444
-1.446846 30.127625 4.3225436
-1.446846 30.127625 4.3225436
-1.446846 30.127625 4.3225436
-0.51143754 5.159225 25.306175
86.553772 -6.4059877 32.116821
86.553772 -6.4059877 32.116821
90.319077 -6.0979586 46.109707
-45.757153 7.3124361 42.890846
93.29763 -19.251822 57.807022
93.288437 -6.4155626 57.760456
-7.8031945 -12.815379 -38.324585
10.117658 -12.879527 10.371597
80.894234 -12.783567 13.0889
64.210396 -13.043434 98.344688
63.936409 13.089863 98.041924
-76.568146 -24.57102 -103.80615
-76.471062 53.144623 -91.161407
-67.022751 17.66465 73.070175
-57.729248 9.9109478 103.97595
0 0 0 1 0 0 0 1 0 0 0 1 0 0 0 0 0 121 1 0 0
