ply
format ascii 1.0
comment PCL generated
element vertex 117
property float x
property float y
property float z
element camera 1
property float view_px
property float view_py
property float view_pz
property float x_axisx
property float x_axisy
property float x_axisz
property float y_axisx
property float y_axisy
property float y_axisz
property float z_axisx
property float z_axisy
property float z_axisz
property float focal
property float scalex
property float scaley
property float centerx
property float centery
property int viewportx
property int viewporty
property float k1
property float k2
end_header
12.045 -19.739201 -85.823601
-14.0898 -12.0637 -85.931
-14.0003 3.8806 -86.264999
7.9379001 -30.747232 -85.922203
7.9379001 -30.747232 -85.922203
11.08725 -10.616301 -86.128502
-1.6553 33.642799 -84.559746
18.252266 17.859266 -78.016731
-18.142166 8.2503662 -75.778297
18.268999 18.219267 -74.933067
-16.6341 -24.191349 -72.595398
17.521667 -1.6814667 -72.827972
18.069099 7.6268001 -72.698135
-17.9193 10.766126 -72.237152
-15.42185 -11.83395 -49.2061
15.71735 4.7657499 -39.874599
-16.549265 30.282999 -31.383667
15.4159 28.532801 -16.176001
6.9604998 32.937649 -18.121151
6.9604998 32.937649 -18.121151
10.8706 -28.829399 -7.9993
13.4931 25.865999 -5.1237001
-16.6005 4.4063668 -0.77740002
13.742599 20.064548 8.33465
4.3541999 -26.27795 11.2534
-6.0816002 -25.431299 10.1212
9.4721003 -24.9373 9.6033001
9.4721003 -24.9373 9.6033001
-10.735467 22.816435 10.675133
10.388 -26.203199 23.6569
4.0742002 -25.6464 25.693899
-7.3764753 -24.184074 26.509399
-7.3764753 -24.184074 26.509399
8.2543669 -24.285101 26.236235
1.0041333 -20.771366 28.165232
-7.5984998 17.6141 27.244898
-4.5588002 -17.621866 29.999899
11.624316 11.780416 30.849733
8.6883993 -11.816466 37.346569
13.901575 -1.2694 36.8209
13.0759 -0.25999999 38.8069
-8.1626997 10.717999 43.904568
1.6653334 -11.345433 50.064564
1.6653334 -11.345433 50.064564
-1.18205 -10.443501 53.645401
-10.17175 -1.65205 52.708397
-10.3577 4.9603 52.714897
-1.96735 10.3862 58.706398
5.1676335 -4.7326331 65.988235
5.1676335 -4.7326331 65.988235
6.5995331 1.3617001 68.2799
-1.4928499 9.6711502 69.416901
15.961254 -16.236103 -66.927185
-16.753263 -9.4912252 -67.132202
-17.227009 9.6246815 -67.026848
3.1562333 38.020267 -67.056839
-16.393259 -9.7332344 -60.900551
15.956796 -9.7303877 -60.700603
-16.570442 9.6245661 -60.927132
2.6644251 38.56052 -59.751892
3.3707294 -38.741066 -54.272568
-15.779648 3.454473 -54.446774
-3.3092186 38.862648 -54.221935
-2.9070749 -38.641464 -47.75515
4.7631664 38.2798 -46.468281
13.12835 -32.928024 -42.438976
15.172361 -9.7144585 -35.507343
17.411375 22.332966 -35.41515
17.411375 22.332966 -35.41515
-3.37485 37.513447 -35.294956
14.624353 -22.383137 -28.90196
-15.013691 -9.8731499 -28.551508
3.7717667 35.870522 -27.898331
-3.5652633 -34.991341 -22.89889
3.3482447 -34.868313 -22.727371
15.80972 3.7335236 -21.691425
-3.0331249 35.072803 -22.693487
-15.497309 -9.822546 -15.807417
-15.497309 -9.822546 -15.807417
16.701317 9.9139357 -16.123205
-9.4115963 32.613968 -16.364429
-16.148405 9.115941 -9.5805807
3.2847676 28.717073 -3.130228
3.2847676 28.717073 -3.130228
8.5206919 -26.046618 2.2799499
-16.610954 -3.0355706 2.8309355
16.262447 -3.9507365 2.5152302
2.8746085 -26.024679 9.6645079
16.651901 -3.3260374 9.6129017
13.742599 20.064548 8.33465
-2.9264402 -28.234426 16.726542
17.278521 -2.9126854 16.253126
-3.6136832 22.32473 15.892383
-17.62536 -3.6345208 22.076468
-7.7334332 19.847 20.7103
-3.2564251 -17.78787 30.0989
14.531076 8.6114302 28.564999
-9.5248566 15.980947 28.860794
-3.0242043 17.987799 28.767567
-14.935987 2.9723451 34.90432
-11.276912 -3.482867 41.946011
-12.029297 3.1393209 41.993896
11.608684 2.8679042 41.451733
11.608684 2.8679042 41.451733
-3.0552917 13.9957 41.708694
-15.230386 -6.4364042 -44.898811
-7.1178107 -33.102844 -18.785519
15.095978 29.865408 -21.305954
15.095978 29.865408 -21.305954
-15.969951 -6.7239418 -6.3505168
15.868002 -6.504951 -6.3421736
6.3973379 28.997364 -6.3826227
-2.266268 -2.6550541 82.445854
-11.448503 -12.654584 -83.787979
-11.563811 12.909077 -83.892113
-2.266268 -2.6550541 82.445854
3.3506649 -3.2287946 82.283417
0 0 0 1 0 0 0 1 0 0 0 1 0 0 0 0 0 117 1 0 0
